# 3D point list with one line of data per point:
#   POINT3D_ID, X, Y, Z, R, G, B, ERROR, TRACK[] as (IMAGE_ID, POINT2D_IDX)
# Number of points: 380, mean track length: 7.0159757609144746
1833 0.70527046554076267 1.8389281261923918 2.0643949668649517 72 48 5 0.32076439815171426 45 25 49 116 43 32
1835 0.28010057689347428 1.7266327958371497 2.1447676338552357 96 74 25 1.0293838205537849 47 48 43 42 48 50
1837 -0.31549881308475797 1.8853143916504667 1.2730993952357108 113 88 31 2.3421363465213547 47 84 43 47
1838 0.25986847182212269 1.7407414774157837 2.1520618995248113 84 58 10 0.29492248854782671 47 82 43 48 48 74
1839 0.0053522828627068728 1.6598867412449048 2.2139161039259663 97 69 6 0.0061055180034766 49 85 43 59
1840 1.0282735993035867 2.2485913988429864 1.9940051624467829 81 58 17 0.15072952537436735 45 2236 43 127
1841 0.77060945779628587 2.2186347274607914 2.0563905821529094 97 67 1 0.060079158877398786 45 2289 43 170 48 1394
1842 -0.32390393603380696 1.8232732982602959 2.1565938261294169 183 156 102 0.27572541212181068 49 216 43 210
1843 0.59091483520824273 2.1895213342168613 2.0870351885930116 124 95 19 0.93734322106424217 45 2301 43 213 48 269 47 1720
1844 0.95697926530368826 2.3118715596708435 2.1304558059083214 126 97 17 0.49559146550275657 45 2323 47 1745 49 408 43 218 48 298
1845 -0.33846330942655528 1.8199999116521155 2.1665362019033858 181 154 101 0.44498327373091956 45 337 43 220 48 205
1846 0.91414643508270688 2.3103186850437618 2.1350942838898836 193 161 84 0.49231705786515417 47 411 43 244 48 300 54 1698
1847 0.96703809976864352 2.3355390180006159 2.1659883489968199 210 178 101 0.51421453623853475 45 483 47 419 43 252 48 311 39 57
1848 0.4177766305670404 2.1571519082154702 2.1356557767172704 114 83 10 0.44277876758906398 49 301 43 264 48 282
1849 -0.17041519349545742 1.9804129189533197 2.1165304684717268 64 36 14 1.3709775172881218 47 1717 43 303 44 1095
1850 0.5582729071633461 2.2572256127995072 2.2284493918583483 199 167 92 0.36628462854860683 47 469 43 312 45 504
1852 0.56221629612300295 2.2862486958824766 2.2797262768322328 205 173 96 0.20667058698820914 49 535 43 337 52 512
1853 -0.06716825593410132 2.0577447125131627 2.2291200790110253 132 101 21 0.018616029477930507 49 294 43 340
1854 0.40553657468732573 2.2324444401986727 2.2665224150458547 201 170 91 0.77442478938934123 45 555 43 351 48 385 46 259
1855 0.53289067465106554 2.281874775223756 2.2864876733561248 123 91 14 0.19787833330853219 45 2390 49 548 43 354
1856 0.5911063070086906 2.3081992940606919 2.2916869636681696 128 97 18 0.57661309344803391 47 581 43 360 48 2291 54 595 57 604
1857 0.71382368864461609 2.3495845710872221 2.3097462922305647 155 123 46 0.15281077731683285 47 598 49 1788 43 361
1858 0.57275781321607599 2.3015619972076662 2.2956806178794551 89 57 0 0.37587264833210621 47 1827 49 1766 43 368 52 2203 55 1566
1859 0.93062231761082614 2.4429654195951898 2.3506864103672429 114 82 9 0.39841720870173586 45 2464 49 732 43 381 52 614 50 488
1860 0.4208513084410162 2.2575177938046807 2.3102548176586666 198 165 93 0.51388267874647997 49 534 43 382 48 429
1861 0.48124608772771149 2.2863751114690554 2.3057686776477015 130 98 21 0.072696677595139952 49 600 43 394
1862 0.94995427110299013 2.4697031369493838 2.3933273251217737 84 54 1 0.28212724180883691 45 2500 43 424 44 337 50 492
1863 0.15568634575659535 2.187057588174782 2.3199722863786052 97 66 2 0.33498813821100293 45 654 47 586 43 441
1864 0.46251177892899437 2.3076288162084988 2.3632568854103191 194 163 99 1.9709651202695149 47 665 54 609 43 447 55 601
1865 0.74913758480585435 2.4059629855323643 2.3902157513160889 106 74 2 0.49522606173085304 47 722 43 449 44 341
1866 0.86463989123561924 2.4545862065321256 2.3964692957497715 111 81 8 0.1869736703917948 47 762 43 456 48 540
1867 0.79497135284750364 2.4318321680240724 2.4118028898236794 98 66 0 0.30155392468817166 49 767 43 482 48 537
1868 0.40772946806628196 2.2989978387824648 2.3763656444380019 85 55 2 0.28654981151449732 45 742 47 691 43 497
1869 0.084313486396974627 2.2230200781231302 2.4230367892136004 189 160 103 0.16414681613848989 49 618 43 567 41 409
1870 0.26626214713772217 2.2981868639314249 2.4540568740659814 198 167 113 0.11276759941213814 45 2566 47 794 43 576
1871 -0.05073025922928466 2.2464990636054463 2.5423608676481431 123 92 12 0.37147348582698825 47 865 43 695 48 580 54 577 41 521 39 433 57 466
1872 -0.66202887432502255 2.0082200810026163 2.4962683220563657 127 96 16 0.069672112898055055 45 903 43 700
1873 0.88302505250576535 2.6122875488259285 2.6630846717175887 67 46 4 0.32687840459326917 45 1078 47 937 49 870 43 703 48 661 55 747
1874 1.1928189412740047 2.7444302727132421 2.7255927960128732 110 88 48 0.68131135492674799 45 1106 54 1875 43 719 48 690
1875 1.0137730828544329 2.6751820891180298 2.7077911121277642 187 166 123 0.25483959584206295 45 1094 47 947 43 723
1876 0.69178397161858785 2.5783954656131227 2.7118838913401144 141 122 82 0.27043097416229456 45 1102 49 882 43 747
1877 0.60106513986616272 2.6061393705009821 2.7980761620762982 184 166 128 0.22793883011713553 45 1150 47 970 43 780 48 709
1878 -0.088988553903517828 2.4136584078739118 2.8621180873194896 36 22 0 0.23697924804924131 45 1188 43 813 48 711
1879 0.33928899780896954 2.6102568739010685 2.9465990148363503 51 35 10 0.27271800383533246 45 1241 47 1035 43 830
1881 0.44580868320504091 2.7600948056261574 3.1398499195498055 57 40 14 0.091100729426199109 45 1338 43 913 48 811
1882 0.30085918386509697 2.7311948428051536 3.179703050151331 42 29 0 0.065090696915583696 45 2835 43 927 48 1759
1883 -0.40564290199631209 2.4523004622055296 3.0883421719375646 142 125 94 0.1294808692148052 45 1329 43 949
1884 -0.080322479518969661 2.6493582759614323 3.2407047655099936 39 25 2 0.1637707703579622 45 2858 43 990 47 2242
1886 1.093778620795802 3.1947006945648377 3.5660649593905553 189 168 115 0.15323923914410442 45 1488 43 1008
1888 1.1785853004620068 3.4047347487667747 3.8634304772145449 184 162 112 0.24682585493267653 45 3009 47 2421 43 1098 44 1523
1889 1.1036071516801458 3.369809410236476 3.877009993272996 68 45 3 0.38405917236074244 45 3005 43 1100 48 1020 44 1520
1890 0.90279486211607896 3.3494018888809864 3.9017790215318509 169 145 101 0.15798889846229131 45 3050 43 1136 48 1984 49 2300
1891 0.44110016206330527 3.1403179620048527 3.7929427207208319 141 127 92 0.14731684195044273 45 1638 43 1142 48 1001
1892 0.23279917709126247 3.0538431011054579 3.733437031244343 67 50 20 0.06203697159767381 45 3016 43 1150
1893 0.72130830595209849 3.3201640536795751 3.9558143016351357 182 160 123 0.07717327731521588 45 3066 43 1178 48 2007
1894 0.36240885854566707 3.1675980464399967 3.8721243003715955 124 106 66 0.15235081880819595 45 1716 43 1191 48 1036
1895 0.42105427871659262 3.2229302530420192 3.9377559095639816 138 118 80 0.077225547002584119 45 1752 43 1207 48 2002
1896 0.3926479550836649 3.2179343991118161 3.9431217910328402 147 128 88 0.11735249086227841 45 1759 43 1212 48 1059
1897 0.022799353136255886 3.0626802406526634 3.8647057659703323 75 55 18 0.28848824616243612 49 1212 43 1227
1898 0.020441987158995492 3.162079141797181 4.0679834080647552 65 43 4 0.47838959176865081 45 3129 43 1299
1899 -0.13224712408431608 3.1283171496091957 4.0596918906811013 79 57 16 0.090176604982124348 45 1874 43 1312
1901 0.58957951385694995 1.7487665406851265 2.1195359885468448 70 47 1 1.0730821483386932 49 45 43 1378 38 7 55 1282
1902 0.65004803849724435 1.7813512523658428 2.1036996092880447 70 50 0 0.022677652900461372 47 19 43 1381
1908 -0.039774427052548994 1.6391966012144716 2.2301043132498308 225 202 140 1.6452357435009697 49 1413 43 1430 46 789 60 695 50 1310 26 56
1909 -0.042115858429586414 1.6586032543110236 2.2404636249314986 103 72 15 1.2580159584593604 47 99 43 1442 44 1890 38 23 36 439 21 405
1910 -0.32192537499743246 1.5730732289023452 2.2852695457632106 95 63 3 0.21464416327252644 45 106 43 1455 39 74
1911 -0.48738894013209072 1.5104521473155543 2.3276105746527502 255 228 152 0.52027582570727959 49 1348 43 1461 9 312 54 1313 73 245 62 242 7 253
1912 -0.4067361602534082 1.5670468172991443 2.2928319229966569 93 62 1 0.09240552522709565 45 127 47 108 43 1471
1914 0.91645444498474316 2.2486144107949566 2.0303490179617962 88 58 0 0.38618752455086591 45 2272 47 2811 43 1554
1915 0.68074948710255501 2.1983768060017255 2.0731194124449299 100 70 4 0.19008209182754368 47 1712 43 1577 39 1047
1916 0.68042850747507377 2.1996869780653028 2.0733897281108167 100 70 4 0.55303889839492038 47 1713 43 1578 48 1396 46 927
1917 0.8001436620464325 2.2422747081685839 2.0811160495542866 85 52 0 0.3982449486799387 45 3415 49 1631 43 1580 52 375 58 330
1918 0.33760331513874003 2.0854963140722256 2.0582081699606194 116 81 23 0.01768912569199519 54 265 43 1587
1920 0.48553705521951968 2.1717796585255709 2.1248515809223862 194 166 93 0.14536722057808393 49 1612 43 1635 52 305
1921 0.086150900821519966 2.0330226237411062 2.1138433544012263 133 95 30 0.25799669359161553 54 233 43 1642 57 255
1922 0.81731060072405193 2.2960626157981663 2.418787636545721 190 159 79 0.72517568292100543 43 1680 55 1587
1923 0.25166219669166012 2.1786705275681468 2.3158550311858543 193 162 95 0.48809465631198695 47 1786 43 1702 53 274
1925 -0.14899004627517043 2.0611713249274386 2.283207795051168 150 119 39 0.44545962899262975 49 363 43 1725 48 333
1926 0.22279657781419243 2.2093552315736784 2.3394490851395666 58 27 0 0.24716571502903803 47 1835 43 1744 41 325
1927 0.82224047834088343 2.4373969540236771 2.4030868103718088 88 56 0 0.28142634297450247 49 1871 43 1753 48 1551
1928 0.39360866326735933 2.2945609327650183 2.3925554417790065 70 39 0 0.28030955631962995 47 1894 43 1794
1929 -0.64815920569187002 1.9161052320561358 2.3565005011454776 181 152 74 0.95121409069007135 47 487 43 1812
1930 -0.11504744190957161 2.1600040094497874 2.4317017998382258 95 64 0 0.32936017928564065 49 1763 43 1879 48 1524 39 1391 41 1707
1932 -0.63886787864672556 2.0079164347433145 2.495313633899106 197 167 87 0.51738764028294171 45 2587 43 1954 48 483
1933 -0.079759654108444489 2.2462848603006011 2.5575381457104536 94 62 1 0.47896810446821342 45 2658 43 1967 44 492
1934 -0.41397474181062915 2.1697361661153218 2.6168513159210129 94 62 0 0.50033673269391243 45 2695 47 908 43 2012 48 614 39 570 41 1902 44 1313
1935 1.0705124729995485 2.8428232713375756 2.9505783906244547 149 128 83 0.31266533808884239 47 2162 43 2043 44 2250 53 1511
1937 -0.10234974055198771 2.416146926489656 2.86652155899404 145 131 104 0.25436192524753609 47 2121 43 2067 48 1674 52 1460 39 1583 41 1954
1938 1.0945103209554261 2.9269832829899887 3.0876526540242484 199 172 129 0.13435911229198327 49 2043 43 2080 48 1744
1939 1.068830155642116 2.9268758047443599 3.101805038891301 184 161 114 0.17112700697211594 47 3084 43 2086 52 2443
1940 0.82558755127381112 2.8308593208538193 3.050263778629144 137 115 68 0.27761960285544446 45 2800 43 2088 48 1731
1941 0.93808590371562561 2.8818964903778026 3.0975225357376042 80 58 11 0.44786275564797173 45 2810 43 2094 47 2197 48 1739
1942 0.80453063005051495 2.8288254469084508 3.0712654647192235 136 112 66 0.2444099571668262 45 2803 43 2096 48 1732
1943 0.85315259160250589 2.8814569595118575 3.1338332380900811 52 29 0 0.3686497474411175 45 2823 43 2102 39 554
1944 0.067251896829844199 2.5562783697256126 3.0076581364004609 54 40 14 0.28975905564196069 45 3648 43 2109
1945 0.58201892887890294 2.8273261738612603 3.1915542747345471 48 29 0 0.15335445727762104 45 2832 43 2134
1946 -0.18615721788488968 2.5003209024948676 3.0472361732025126 46 32 6 0.16186709555654519 45 2815 43 2137 48 1719
1947 0.4661088862172546 2.7865896494219404 3.1747177555216934 49 32 2 0.46585977987317245 45 3680 43 2140 48 2462 47 3110 53 1505
1948 0.14397334439146894 2.7361457505078697 3.2601034988771076 176 163 129 0.28708701903165296 45 2863 43 2178 39 1680 61 612
1949 0.93235877508614506 3.0853838545592192 3.4386097091929964 138 117 62 0.17916584577946645 45 2890 47 2273 43 2182
1950 0.92228672034270076 3.0820475058686356 3.4218092802134259 138 117 62 0.38826957370933957 47 2274 43 2183 44 1431
1951 1.128751348191078 3.2007054875136447 3.5766891974507513 179 160 104 0.40227396165457241 45 2908 43 2199 48 1848 49 2137
1952 0.7162630307782194 3.041585518983672 3.4878647910741756 120 96 60 0.13215575699539139 47 2286 43 2208 44 1446
1953 0.7162630307782194 3.041585518983672 3.4878647910741756 120 96 60 0.13215575699539139 47 2285 43 2209 44 1445
1954 -0.1416559347043117 2.6801155152995428 3.3240481669367332 206 189 161 0.15243371836769468 45 2882 43 2221 47 2253
1955 0.5721058286093712 3.0137114282377349 3.5158488613017402 125 106 76 0.17711431675040873 45 2916 49 2898 43 2226 47 2295
1956 0.80051161216667754 3.1413470337387399 3.6145922593718649 174 150 112 0.44387174500650628 45 2940 43 2233 48 1873 49 2151 44 1465
1958 0.60726691706657276 3.1086647535114547 3.6481310149341315 199 183 147 0.26646441912852498 45 2957 43 2250 48 1881
1959 0.52336017733428841 3.0886087496133983 3.6523675020380648 197 177 142 0.15953462987914172 45 2958 43 2258 41 943
1960 0.48323491167673893 3.0832067221743391 3.6747801399740703 182 159 125 0.25149619499091297 45 2962 43 2264 48 2560 52 1737
1961 0.47237360416491414 3.0803710722600091 3.6466428077758293 182 159 125 0.2251350949310334 45 2963 43 2265 48 2561 49 2174
1963 0.13199361072862859 3.0108322593210466 3.7371388361334112 159 143 113 0.12241317481394483 45 3010 47 2375 43 2320
1964 0.75774528975137689 3.3256674897404324 3.9376490037644949 196 172 136 0.30819056231028275 45 3853 47 3309 43 2336 48 1999 41 2205 39 1768
1965 0.8360801909839003 3.4150923750105431 4.0304368469607557 82 51 8 0.41739152902712201 45 3878 43 2360 48 2654
1966 0.51403206908918186 3.2828456964237076 3.9920671713841549 191 172 132 0.057235876008849683 45 1784 43 2376 48 2017
1967 0.014293667262419259 3.0743208815088554 3.9140150607063022 73 53 16 0.4541653608425803 45 3088 43 2396 44 1663 52 1758
1968 0.37822225692501454 3.2539421407427849 4.0062889371335819 179 160 118 0.21776004961843648 45 3893 43 2398 48 2027 39 1822
1969 0.53789097841895017 3.3764307767116102 4.141827096911066 136 117 77 0.24820841375012742 45 3139 43 2424 48 2070 44 1722
1970 0.63382762500036616 3.4545256768301797 4.2450650829924683 117 92 51 0.11347304931371438 45 3924 43 2440 48 2682
1971 -0.0332989949935509 3.1685045254506541 4.0973657600298186 173 151 112 0.14902970804076379 45 3147 43 2456 48 2051 49 2316
1972 1.0261659048770801 1.8818961767277496 2.008993226626405 53 28 0 0.61603470574601149 45 1981 43 2489 52 1135 57 1439
1973 1.0381061504993945 1.8930873946855236 2.0043546967681158 227 203 157 0.32840751213740882 47 2645 43 2492 50 1890 41 2402
1974 0.88316699789249997 1.8221778864705993 2.0564997479823508 240 217 173 0.77604666872950989 45 3936 47 2639 43 2493 52 2736 55 2959 39 2540 59 2031 63 1947 20 324 16 449 10 609 9 628 5 608 73 721 83 795 62 1020 83 1194 7 783 29 1173 40 761 51 998 96 987 85 535 67 716
1975 0.82918291665808774 1.8236813232501454 2.0565190815697143 67 40 1 0.51977919764344005 47 2642 49 2431 43 2494 25 316
1983 0.26200067600428101 2.1838627394596251 2.2976070202200489 196 165 98 0.38932937726721378 47 1787 43 2709 55 1466 53 851
1984 0.75335024122501526 2.3914413097627114 2.3485500776566228 196 164 87 0.28785101860422746 45 4094 43 2719 48 2823 39 1194
1985 0.24271580642769772 2.2423137831722251 2.3731725704957563 88 57 3 0.15718098805622863 47 1872 49 2656 43 2739
1986 -0.077439006613047423 2.1492820433904387 2.3910360526624328 199 168 88 0.89663497165666217 47 2884 43 2752 55 2379 39 1365 41 1670 57 1508 59 182
1989 0.058444383600892325 2.2311341894414616 2.4559646601041987 62 30 0 0.61467983517038627 49 2677 43 2767 48 2336 55 1510 41 2666 39 2281 46 1717
1990 0.70788944188512271 2.4901953007203961 2.5480343069722942 124 102 61 0.26269891425513647 49 2722 43 2772 48 2365 45 3564
1992 0.4662466409691699 2.4433463327327503 2.596499533359268 126 104 65 0.33540269150823548 45 3586 43 2793 48 2367
1993 0.1289454909588261 2.316744489725723 2.5737682272081965 98 67 3 0.45880992455752184 47 2037 43 2795 41 1751
1994 1.0571419114073755 2.6858717614644116 2.7005684675353527 159 138 95 0.36370965942632727 45 3592 47 2959 43 2802 48 2389
1995 0.47044929595960772 2.527831106951635 2.7437486084456291 126 111 72 0.27514608649926131 47 2972 43 2825 48 2392 52 2269 39 2319
1996 0.6765648596022833 2.6753091090695005 2.8867607036874952 132 115 72 0.25301838711112579 47 3002 43 2844 44 2240
1997 0.67496284216654168 2.6751492212388386 2.8849768306688004 132 115 72 0.14343067156705627 47 3001 43 2845 52 2322
1998 0.29460688087894416 2.5980863066037378 2.9596862442166301 113 98 75 0.17385719641514907 45 3633 43 2864 55 1703
1999 0.65420976300402256 2.7999164953275177 3.1206846486207116 122 105 61 0.13833585741912929 45 4192 47 3638 43 2883 44 3091
2000 0.80057746137308949 2.8208928700844766 3.428714964163408 122 105 61 2.5834622999546033 47 3639 43 2884 44 3090 56 1739
2001 0.9866277182789529 2.9888500875331006 3.2418565646492872 82 61 6 0.40596979571774144 45 3683 43 2895 48 2962
2002 1.1182341209002762 3.064597637407235 3.3133035746182156 96 75 22 0.59997748368531512 49 3367 43 2898 48 2978 44 3133
2004 -0.23481208248327812 2.4864184497281796 3.051782582595004 112 98 72 0.24481754128326028 45 3660 43 2900 48 2422 41 2055 54 1804
2005 0.33726285064051831 2.7771740201081512 3.2330518378714661 163 153 118 0.2134853839357696 45 3689 47 3127 43 2915 48 2476 44 2367
2006 0.2559723844752067 2.7608992243829893 3.2476729824471633 154 140 110 0.16695214895232913 45 3694 47 3137 43 2923 48 2481 44 2376 55 2634 41 2853
2007 1.0474694677664484 3.1058073603988032 3.4326272018183253 126 105 52 0.56140792163689113 45 3727 43 2925
2008 0.637847468510646 3.0059718765967567 3.4690385932437051 72 50 13 0.37727477306975793 49 2890 43 2969 48 2524
2009 -0.12515509476546441 2.6816198995489735 3.318103180918774 39 22 0 0.23091489289928738 45 3724 43 2971 47 3157 41 2159 39 1745
2011 0.74690468057323445 3.0887748006183857 3.5578330014514492 125 101 65 0.42055642950143168 47 3215 43 2975 44 2471
2012 0.65654258824897438 3.1140760469522237 3.6345121517390115 170 148 111 0.28867806499167747 47 3223 43 2995 44 2495 52 2532
2013 0.87681031793776154 3.2377744683661649 3.7439189854963137 73 51 12 0.03106705594177285 47 3234 43 3001
2014 1.0879243760376847 3.3695244703664522 3.8938567957697305 79 57 14 0.45602402374253243 45 4269 43 3007 48 2609 44 2522 47 3268
2015 0.39385818492492969 3.063772604517645 3.6814807800906166 166 150 116 0.21601395632356379 49 2939 43 3009 48 2565 54 2668 55 1928 44 2517 41 2191 57 1965
2016 0.93191490319760473 3.3148883396285242 3.8386482819403938 104 82 41 0.27161837674806394 45 3812 43 3011 44 2530
2017 0.93191490319760473 3.3148883396285242 3.8386482819403938 104 82 41 0.27161837674806394 45 3813 43 3012 44 2529
2018 1.3785644976808522 3.5242615149056244 4.0803747596716544 135 106 40 1.5334856152650485 45 4277 47 3300 43 3016 48 3021 46 1229 44 709
2019 0.93955240333795831 3.3588815222010253 3.9050161675309054 196 173 131 0.17624052226851342 45 3833 47 3290 43 3020 44 2552 41 2175
2020 0.096361040886338983 3.0035185864627421 3.7347529345249462 173 157 124 0.35352692129127855 45 3017 43 3026 47 2379 44 2548 41 2239 49 2165
2021 0.72979862505292226 3.3013660979616559 3.9192919479961121 63 41 4 0.17011447067822952 45 3847 43 3028 44 2563
2022 0.11340270076822609 3.023702798928753 3.7443026464279248 68 49 17 0.23564014629481886 45 3820 54 2655 43 3031
2023 1.1708747388468772 3.5540470806083206 4.1363664054245648 120 89 42 0.71390199787697362 47 3353 43 3045 44 2600 46 1615 50 1819
2024 0.87033321620801929 3.4512135265153536 4.1905573832987111 111 80 35 0.12495284937863296 47 3352 43 3063 48 2661 45 3899
2025 0.87086448414935591 3.4514623842275811 4.1916412714769313 111 80 35 0.14533823533625809 47 3351 43 3064 48 2660
2026 0.18461659981011944 3.1563733442200594 3.9496427790898734 61 41 4 0.34530542529974534 45 3875 43 3078 44 2614 39 1839 41 2290
2027 0.65187473187428402 3.4462110460802506 4.1278475985921901 109 85 39 1.2497785488264941 45 3923 43 3096 47 3364 48 2680
2028 0.47899989891930295 3.3954699545807907 4.2130905584478535 76 54 13 0.40486137272488704 45 4325 43 3104 41 2312
2029 -0.099912983581496181 3.1262385092802711 3.5180253143191571 164 142 101 1.0126698840329833 45 3920 47 2550 55 2768
2030 0.031815295884147443 3.1790946437028298 4.0718427340899872 164 142 101 0.34749352744729362 47 2551 43 3108 45 3921
2034 0.26053642682190475 1.7237478962516202 2.1628398391773462 81 55 4 0.8208577507374637 47 3407 43 3157 44 1849 55 2256 39 2022 41 2445 63 972 38 678 33 80 20 385 28 50 24 231 25 376 22 311 19 240 16 285 21 167 17 211 15 372 53 721 13 71 9 697 5 86 4 63 83 1216 18 823 96 602 98 43 75 114
2036 -0.56804148939496701 1.6566598389006433 2.2572407321423027 100 67 1 0.82564422325020403 45 4034 43 3228 48 2763 24 491 16 543 17 284 29 827 40 829
2037 -0.13359299464096536 1.9772174824332283 2.1701438616950699 118 97 52 0.85033800253059977 47 3486 43 3253 52 2104 56 1512
2038 0.7306388003844364 2.3874069544140117 2.3702706573472203 200 169 89 1.4747972827274305 45 4099 49 3202 43 3269 48 2828 45 4101 44 2892 52 2825 54 2917 39 2174 41 2576 53 1853
2039 0.71592715644197313 2.3812838850005495 2.3973630509201649 194 162 85 0.50310553398101054 47 3516 43 3273 44 2895 39 2644
2040 0.036789143290910625 2.1539454296504594 2.3475981269288368 193 161 84 1.1592175445983925 45 4396 43 3277 39 2673 41 3070
2041 0.053867136775038585 2.1721346410747606 2.3557524730180912 82 48 0 0.50608445495892707 47 2872 43 3280 44 2901 39 2242 41 2630 38 832
2042 0.65716043066757424 2.4799752023008521 2.5889506834315492 105 88 44 1.2085625224733989 47 3535 43 3308 48 3166 39 2248 41 2642 57 2967 59 2401 58 2165 52 3198 61 2483 63 2507 56 2347
2043 0.86622567062715072 2.583925942294818 2.6232720676814187 75 54 11 0.4209845858246728 45 4131 43 3312 48 2853 41 2641
2044 1.1078228708709252 2.69744762380894 2.6934769393408162 174 153 110 0.17482806097086964 47 3551 43 3316 48 2865
2045 1.0261517609695181 2.6826643582546423 2.7163498012038803 140 119 76 0.30416872478323292 45 4439 43 3322 48 3188 44 3360 50 2436 39 2252 41 2652 46 2017
2047 1.0424795024935054 2.7720602002101162 2.8634842456079852 77 56 11 0.52966695779006034 45 4153 43 3343 48 2881
2048 0.94344671796203827 2.773871490020984 2.9052293926307615 127 108 65 0.35119346782936783 47 3583 43 3349 44 3374 52 3270 50 2454 53 2249 56 2384
2049 0.59115694791045958 2.7623658598340151 3.0680962220819721 71 54 11 0.45008925108060255 45 4489 43 3396 47 3628 48 3231 49 3585 44 3407 50 2459 52 3272
2050 0.56232714616999568 2.7603448316142103 3.0826188405839998 71 52 12 0.69766570586364418 47 3630 43 3398 41 2799 39 2410
2051 0.70677009179434025 2.8296665497652076 3.1258043432845026 74 60 13 0.45136604657255813 45 4491 43 3405 48 3233
2052 0.020014800699307368 2.5677716208519534 3.000448512676352 50 36 9 0.63808768537606064 49 3267 43 3408 48 2916 52 2879
2053 0.62382468412301018 2.8142413297360807 3.1732215808785531 74 57 13 0.76783204241588465 47 3647 43 3409 48 2939 49 3329 55 3170
2054 0.42357659118549579 2.7542549589344532 3.1455909016462256 122 108 82 0.64455556582955154 45 4204 47 3646 43 3412 44 3107 50 2105 55 3133 39 2426 41 2821 46 1546 53 1999 59 1675 61 2256 56 2186 58 2255
2055 1.1568617224488937 3.0605954185632682 3.3338293408608233 94 73 18 0.51428912807016591 47 3662 43 3414 44 3127
2056 0.31513341435208397 2.7740212041498395 3.2485846693214668 156 143 111 0.39246345073430944 47 3133 43 3435 44 3141 55 3147 41 2844 58 2256
2057 0.31485293315570106 2.7744521023201987 3.2469887766293755 156 143 111 0.39349390792980532 47 3132 43 3436 44 3142 55 3148 52 2972 39 1636 41 2845 58 2257
2059 0.16355205828812977 2.7215279689454892 3.2609703288426068 52 39 9 0.62548532284311043 49 3326 43 3444 48 2949 52 3271 55 3114 57 3001 47 3655 53 1989
2060 0.66695303401004324 3.0506423303993708 3.4917852741654638 72 48 12 0.62760180938618704 45 4249 43 3454 47 3677 48 2996
2062 0.62942143776847981 3.0966103924736155 3.6366916001642537 60 40 4 0.43976155083587276 47 3681 43 3457 45 4255 48 3002 44 3173 41 2886
2063 0.34645784690183978 3.0843089788448546 3.7003300207484258 61 47 11 0.85914488651845244 47 3686 43 3464 48 3011 39 2497 41 2902
2064 0.7001877699666762 3.4274727736402775 4.1089903769436535 80 55 13 0.37007599133159785 49 3435 43 3474 46 1619
2065 0.55751807334789549 3.4112407968484781 4.2124376637029091 74 52 11 0.24052322899157358 45 4321 47 3725 43 3478 48 3046
2066 0.55751807334789549 3.4112407968484781 4.2124376637029091 74 52 11 0.24052322899157358 45 4322 47 3724 43 3479 48 3047
2067 -0.48394438099133352 3.0927236899525212 4.211863028724034 82 60 11 0.3626629068181299 45 4332 43 3495 44 3217
2068 0.7665193413905691 1.8194958154506169 2.064201700766831 76 52 8 0.73018696036441055 45 4343 43 3511 48 3062
2069 -0.29419695786505834 1.5187347531946882 2.3103156167011809 96 62 1 0.52152359418174254 47 3744 43 3519 9 1374 5 1123 99 406 56 1966
2070 -0.5130793422541432 1.4661991665643817 2.3642247065853872 84 49 0 0.47278234801254371 45 4353 43 3523
2073 0.86144069825460001 2.3223514941873535 2.2207096798715167 189 160 84 1.0245582760417142 47 3799 43 3566 55 3307 54 3167 50 2342 49 3510 41 3021 57 3174 56 2333
2074 0.71184002749332054 2.2892508261781481 2.2687175530715851 191 160 80 1.4365502357374886 54 3165 43 3568 52 3341 55 3304 53 2315 59 2383 56 2326
2076 0.77219745838269926 2.5249973242475612 2.5751271108029337 81 55 18 0.17283646025168128 45 4425 43 3609 48 3171
2077 0.67175132456997255 2.5272550908006131 2.6232926948299058 126 108 68 0.72231543849178836 54 3183 43 3622 48 3177 44 3353 52 3207 50 2383 39 2692 41 3091 57 2975 58 2184 56 2117 38 1194
2079 0.80141889523183196 2.5699419366424254 2.6543063012373609 73 56 12 0.84825513156569288 45 4433 49 3656 43 3624 48 3179 44 3478 46 2010
2080 1.1058630496927435 2.8212037803595047 2.9049435747551424 82 61 16 0.37582904584810373 47 3861 43 3634 44 3373
2081 1.1047337179814583 2.830210542865204 2.9552518206991434 85 64 19 0.452957302929339 45 4454 47 3863 43 3635 48 3219 44 3376
2082 0.61517954429608857 2.6813078449052257 2.9950359586293938 66 52 7 0.46221352815492328 45 4459 43 3640 48 3217
2084 1.4111409163632556 3.5462590386178756 4.2342786093556315 187 157 96 1.4842631030912012 45 4575 47 3940 48 3331 44 3427 52 3455 54 3374 55 3512 50 2626 46 2217 53 2408 58 2583 61 2679 59 2619 63 2912 60 1769 65 163 66 188 64 134
2085 0.25790853426306604 3.0609820913973991 3.7221885002329862 62 46 12 0.51032879849877277 49 3607 43 3674 55 3366 47 3885
2086 0.098762060522445252 3.2194349691553383 4.0637898766502625 78 56 17 0.42576744478614764 54 3241 43 3680 44 3433
2087 0.94747257475026037 2.3442582619477244 2.1802007361558768 192 160 85 0.95324347299555368 45 4544 43 3705 50 2543 55 3413 53 2319 59 2506 61 2610 56 2454 58 2417 38 1103
2088 -0.15490027453677635 1.9852217256795117 2.1836455739649505 52 28 12 1.5198641839147082 45 4542 49 3633 43 3708 53 2133 63 1901
2089 0.90434395055221561 2.3827918734608771 2.292714847473885 196 164 87 0.057261616023378877 47 3807 43 3710 44 3463
2090 0.95029967461087494 2.4976412482098209 2.4110799630905757 200 168 96 1.0668494657827354 45 4548 43 3717 48 3302 52 3352 39 2850 41 3270 59 2508 56 2355 38 1140 37 381
2091 0.16075188186797706 2.3357709688039177 2.5710542301285066 194 160 97 0.58037551811952037 47 3928 43 3727 48 3312 50 2613 46 2267
2092 0.90977795336478684 2.2591351625845864 2.0586913784686511 111 83 10 0.74189633579017233 45 4601 43 3758 48 3359 44 3514 50 2595 52 3397 39 2825 41 3239 46 2255 53 2357 38 1348 37 467 42 903
2093 0.61208215734166849 2.2416967960770147 2.1300771106659724 187 158 82 1.5861486780916536 47 3960 43 3764 52 3399 54 3328 50 2601 38 1455
2094 0.56966214317782093 2.2367430442393994 2.1285570287496531 190 161 85 1.2831977921790239 45 4604 43 3765 48 3362 54 3326 44 3517 50 2600 39 2836 56 2491 38 1356
2095 -0.051190021800922997 2.0154154702804159 2.1488420411968692 97 57 8 1.0907096194758352 45 4602 43 3767 52 3390 46 2289 57 3260 53 2354 58 2550 61 2582 63 2821 56 2433 60 1628
2096 0.81723641191188112 2.369732214438351 2.3372797493857003 196 164 87 0.15099048984890037 47 3968 43 3771 48 3375
2097 -0.25331431236226509 2.0302518466331136 2.3035796721090391 182 151 69 1.1739435322114173 45 4613 43 3772 48 3285 44 3467 41 3361 39 2874
2099 -0.53940481655464667 2.0140176025601533 2.4148839159289555 190 158 81 1.5908586296630183 45 4621 43 3776 48 3373 44 3529 41 3369 46 2261
2100 1.0657952566093154 2.7212361399282954 2.7331906399364665 76 55 12 0.91651251460734751 45 4633 43 3779 48 3380 39 2871 46 2269 38 1392
2101 0.99584793009795547 2.7071914674095003 2.7437826436873207 81 60 17 0.99595391692330493 45 4634 43 3780 48 3381 39 2875 41 3363 46 2270 53 2371 54 3350 38 1396
2102 0.71026856723509968 2.6472587059962036 2.7721583030236454 70 52 12 0.58635112774595899 47 3980 43 3783 39 2951 41 3368
2103 -0.11244887077986168 2.057121955341318 2.2603135658682305 182 149 70 1.2159647395710751 47 4003 43 3801 44 3587 55 3498 41 3398 56 2485
2104 -0.33787547312944283 2.0970713416088134 2.4597056974401275 189 158 78 0.97577070987683889 49 3722 43 3806 48 3410 52 3445 50 2648 59 2596
2105 -0.22113786047489201 2.1708325613216668 2.4936683657256684 192 161 81 0.8656882362859637 47 4006 43 3807 39 2990 46 2303 38 1520
2106 0.46492334930646928 3.2097537235745128 3.8621670855961376 75 55 18 0.9988539653477192 45 4669 47 3981 43 3810 44 3568 46 2278
2109 -0.39964320137934567 1.5630738189785858 2.3009844783324378 161 130 63 0.34053545436567417 45 4682 43 3825 44 3580
2110 -0.092065499749524618 1.9705394243908991 2.1493051431595656 207 172 91 0.7904853129359265 47 3994 43 3829 48 3395 44 3583 46 2286
2111 0.23621967496448498 2.5190768090117444 3.0638329783702507 50 35 12 0.92929698753585921 54 3396 43 3840
2112 0.60108216656539437 3.4526236518809212 4.1952068385563459 106 80 40 0.86197787045721141 47 4042 43 3847 48 3463 59 2645 56 2568
2113 -0.66899940733116381 1.8974090524604712 2.3366179288546882 186 156 72 0.5446147391875944 47 4048 43 3856 44 3615 46 2361
2114 -0.66899940733116381 1.8974090524604712 2.3366179288546882 186 156 72 0.5446147391875944 47 4047 43 3857 44 3614 46 2362
2117 0.30892113885170314 2.2235606690973349 2.3136882427603687 65 37 0 0.31265591000873655 47 1824 45 2417 43 401 54 469 49 516
2118 0.11296551132480731 2.1751946124289838 2.3318599065668284 197 170 124 0.70809368246063731 47 592 45 2444 43 1755 54 1628 49 2624 55 1450 41 346 39 1283 57 1526 59 738 61 1059 63 283 60 834
2119 -0.48943467434608817 1.5926827168255902 2.2848019022226187 67 34 0 0.79822769286577699 47 1526 45 3310 43 2603 45 2159 49 1458 48 1272 10 514
2120 -0.20122915922709783 2.6640485263630076 3.3322242636838943 75 70 54 0.16365154579417374 54 2558 49 2828 43 3456 45 4235 47 3164 48 2972 44 2441 52 2357
2122 0.10024667949608004 1.6667712401545041 2.214871858613332 77 46 1 0.58860136417149955 47 1450 43 2537 39 1011 41 1320 38 278
2123 0.77230064261173081 1.8148137365486428 2.0715206013247518 79 54 10 0.38876588117281191 45 3940 43 3141
2124 0.48682206196945177 1.7193996578373816 2.1545012826175527 91 66 20 1.3644474042443893 45 2008 48 26 46 35
2125 0.20483289074877101 1.6659261629958602 2.1906124136887564 68 46 6 0.90113415676220898 45 30 48 35 55 87
2126 0.29206953860594381 1.5349334757470798 2.7356219080445814 75 50 8 2.8079909867551098 43 56 48 49
2127 0.164807422112693 1.4933031314732212 2.7894156316267158 0 0 0 1.4432655649163428 45 81 54 113
2129 -0.67210958459782078 1.7050857697059036 2.2304515681580845 47 30 10 0.00060389732555328913 43 253 48 195
2130 -0.55559830888607853 1.7752697824249992 2.1999373666873887 185 164 135 0.59708468627475864 43 267 49 211 48 220
2133 -0.11883384050248702 1.9743594114028273 2.1624948525652816 110 81 18 1.6420383052477709 49 254 48 248 57 216 61 230
2134 0.95134874063461183 2.274830821316375 2.0600576428109556 90 57 0 0.78934617627032855 54 456 48 254 57 578
2135 -0.43845403788903936 1.9967850165890515 2.3409419907609528 109 77 5 0.54751205332727948 49 351 48 353
2136 -0.49307498444630826 1.9806008315453076 2.3582599634334382 117 85 8 0.15073066180329228 47 1802 48 357 41 492
2137 0.78933825465240159 2.3886501277747469 2.3364298199957987 125 93 17 0.53637459819421074 47 648 48 455 52 1415 63 513
2138 -0.44178965779390722 2.0562473415569444 2.4483313439896728 201 168 101 0.2648057463210145 43 631 45 824 49 458 48 462
2139 -0.49839312554808263 2.0453852216640871 2.4684107669162603 200 166 104 0.37335091323875447 43 1930 48 471 39 1484
2140 -0.23692133278289021 2.1294942519302418 2.4472151654263441 103 70 7 0.187344393332294 47 749 49 558 48 499
2141 -0.19582392047254701 2.1433152244143474 2.4339481681573369 90 56 3 0.4652937013188157 49 588 54 388 48 502
2142 0.70228657367740299 2.386016661013842 2.4467905605380351 190 161 85 0.35276865710023708 45 2508 48 518
2143 0.71327564558669376 2.4181359556264654 2.3841293909351937 189 158 78 0.17477515961679682 54 1763 48 539 52 1431
2144 -0.38124895201896647 2.1544145781266972 2.5703461605806299 201 171 109 0.17772678867524735 45 1022 54 444 48 574
2145 -0.22015674839577459 2.2046947811697679 2.5676970935963745 194 163 96 0.4731005879105627 45 1011 49 715 48 591 52 506
2146 -0.67758950712879884 2.1402002090589982 2.7480373395223281 154 134 99 1.3153343535568773 54 487 48 647 55 3295
2147 0.87320725276200883 2.6033334286658443 2.6576400563019615 105 86 56 0.21146220304691468 45 1072 48 658 52 697
2148 1.1220343334834904 2.6921288502577045 2.7047522274086546 190 170 135 0.20787372029609907 49 904 48 671
2149 0.69797608480550744 2.6288924231588502 2.817237985146591 66 46 13 0.0029373618091454211 47 969 48 708
2150 -0.22166628210508768 2.3904756466729564 2.8812536992953017 121 112 97 0.32282022512076541 54 702 48 725 52 645
2151 1.063770854024602 2.7598930885054735 2.8180485930026098 154 135 101 0.2912517594868651 43 2016 47 976 48 727 55 1800
2152 -0.5481793033536162 2.3177015108433801 2.9534772499782469 123 114 99 0.029842207831178927 49 852 48 737
2153 1.0562534337687035 2.8088076263111792 2.8883255966429959 73 54 14 0.38156800268688906 54 912 48 749 55 810
2154 0.20586217436024409 2.5886782327256088 2.9779487347830282 103 92 70 0.026090442611394572 45 1270 48 765
2155 -0.11162217842394255 2.5170546672387673 3.0316182229235022 27 15 0 0.29426978879001736 43 2127 45 2807 48 783
2156 -0.2871779755606772 2.5443148077522748 2.4151584770468726 0 0 0 0.35402682532422391 45 1301 49 961
2157 0.40704707609259005 2.7452433381507482 3.252703498415336 35 23 1 0.34907407184268302 45 1351 48 818 46 551
2158 0.71826425730789811 2.8554813028816435 3.1837895352092396 168 148 121 0.0011814187070296996 45 1345 48 823
2159 0.19103807473739445 2.7167757094983718 3.8308082425772554 180 159 131 2.4144500115235843 45 1424 49 1075 48 859
2160 0.95375152209320546 3.0078094098367436 3.2961137282704205 133 111 72 0.50674863224903666 49 1110 48 872 52 835
2162 0.99234913487223042 3.243498222386985 3.6767266666783658 124 101 72 0.059935381637652232 54 1192 48 954
2163 0.9265259135452284 3.2307395649054196 3.7028256998575846 124 103 72 0.42689050649911281 45 1549 48 957 46 621
2164 0.19984914863150022 3.0901245478529904 3.7925593869407099 126 108 70 0.20058380533862202 45 1696 48 1018
2166 1.0706742558876212 3.3871379140011251 3.8800170817454562 145 124 81 0.24684494740064733 49 1271 48 1038 50 662
2167 0.56774682453034486 3.2920474630182381 3.9735163025008124 192 174 138 0.27797189378165887 43 1203 45 1771 48 1073 39 788
2168 0.17711021911533395 3.1763757761437112 3.9806413661297553 111 94 51 0.174379867308188 45 1810 54 1137 48 1081
2169 0.42469988280167692 3.3618802840926145 4.1553499952878479 60 42 6 0.38058226169170584 47 1329 48 1141 44 808
2170 0.57279105258020302 3.4390070043073284 4.2120584337109221 124 101 69 0.10534080290239889 45 1884 49 1310 48 1146
2172 0.85699186306014985 1.8562380724573353 2.0436164838978699 86 60 2 0.48827851201536315 47 21 48 1196 55 153 57 217
2173 0.35322950410306503 1.7263094746509926 2.1573876109575232 74 54 4 1.6679300478503229 47 2675 48 1213 24 222 25 364
2176 -0.56931040200491445 1.6728078360389755 2.2474385410109998 226 197 137 0.20749070283046345 43 1570 48 1320 10 188
2178 0.73374135296854248 2.2343643683998051 2.1060861203203842 203 170 102 1.7805829547811518 43 1593 54 431 48 1405 57 489
2179 -0.37517841642879862 1.9964129285469583 2.2982062930438949 178 147 72 0.2599683641639583 54 1533 48 1435
2180 0.8385536920647455 2.408654300552187 2.3469165600511177 186 154 79 0.1526811035530804 49 2688 48 1518 52 1419
2181 -0.6199660240213154 2.0131976113448316 2.4887628780095334 93 59 3 0.17820434841934232 43 1955 49 447 48 1520
2182 -0.076897478534160513 2.1969338183942844 2.4681326647650752 111 79 6 0.23699071430894394 49 1798 54 488 48 1554
2183 0.76337736911495058 2.4271782440592982 2.4005213742012992 113 81 6 0.17190839294670898 45 2524 54 1768 48 1556
2184 0.69582569648877679 2.4093474587657697 2.403394314527795 189 158 78 0.57695915920195195 49 754 48 1564 52 1429
2185 -0.18046337631384879 2.214217558268031 2.5554867552755698 66 37 0 0.52461707488502496 54 1695 48 1605 55 486 57 422
2186 -0.18046337631384879 2.214217558268031 2.5554867552755698 66 37 0 0.52461707488502496 54 1694 48 1606 55 485 57 421
2187 1.3058792486027375 2.6290280121182485 2.7269890418886971 45 26 0 1.2390376637938916 45 2629 48 1632
2188 1.2987021271893742 2.7380712773960094 2.7714960723016602 76 57 15 0.20166153306764545 45 2703 48 1656 50 1555
2189 0.62323775299024242 2.6021296810591235 2.7825864735588177 193 174 144 0.12033251682640371 43 2026 48 1667 39 417
2190 1.0486061357224552 2.7995015570278299 2.8975273548213556 130 111 69 0.44363059121350923 54 1906 48 1706 55 1813
2191 0.69023700178871716 2.7652637458181166 3.0277983073074699 140 121 89 0.40792097764475582 43 2083 48 1722 46 1531
2192 0.6870518126448536 2.7656178277102037 3.0177429215715246 140 121 89 0.17420284149304613 49 2795 48 1723 52 2378
2193 0.61236847617373502 2.7893425041865574 3.1057308485517314 111 90 69 0.27180793943524723 43 2112 49 2022 48 1742
2194 1.0935116850811433 2.9277277715750731 3.0863936827252174 164 147 104 0.27648650741320935 45 3653 49 2044 48 1745 47 2195 44 1365
2195 0.24651374832162357 2.7172113080078035 3.1718299119553315 109 95 71 0.094975071137969547 45 2838 49 1026 48 1757
2196 0.83205621013064546 2.893718361514229 3.1532346137262453 67 44 13 0.3381819831255406 43 2114 48 1760 52 1644
2197 0.02747414589393048 2.670963971621191 3.212070377384058 91 74 48 0.21089574902958444 45 2855 54 1869 48 1769 57 1751
2198 0.88311188282052422 3.0150516724448937 3.3500940416187373 63 41 4 0.56794433984394421 45 3710 48 1791 47 3166 52 2469
2199 0.84345557305951668 3.008403636321817 3.2591255054742079 63 41 4 0.61560531461500101 45 3711 48 1792 47 3167
2200 0.8580793757600691 3.0267728317861597 3.3236234001589464 125 103 66 0.44122680286420352 47 2263 49 2085 48 1799
2201 1.2957771700344176 3.1580637582818967 3.4634678197572497 63 42 0 1.1797139346432761 45 1429 48 1803 44 2386 43 2911 46 1561 49 3604
2202 1.1650566459028129 3.1475423990916465 3.4539115884547926 95 74 29 0.30295306866620048 49 2900 48 1814 50 1694
2203 0.89544601353647946 3.1175860433415927 3.5177446052384402 115 94 66 0.21102507902494547 45 2905 48 1839 44 1448
2204 1.0927474591540738 3.1784554370910847 3.5776446738981678 86 65 18 0.74638199236665914 45 2903 49 2129 48 1842
2205 1.0283896164645472 3.1673887624745301 3.5320338710840709 74 53 9 0.32591912422648561 45 3755 48 1844 50 1710
2206 1.1485716717942556 3.2046397894937599 3.6237902276224863 155 134 89 0.19239639300525133 45 2909 49 2136 48 1847
2207 0.89408812214813804 3.1595541784294698 3.6233563225682652 162 143 113 0.16849999543280042 45 2931 48 1864 44 1462 47 2317
2208 0.84456222680737547 3.1504229828529766 3.595888953357735 180 159 132 0.14509081138936922 43 1048 45 1514 48 1869 39 659
2209 1.0936556834429161 3.2594208614091529 3.6659260156074334 129 107 68 0.55996613665691164 45 2946 49 2189 48 1884 52 1857
2210 0.89328144488182959 3.2424260819533401 3.7065911076595994 66 47 15 0.21968610446853432 45 3792 48 1903 44 2507
2211 1.0707040023743581 3.2965091985364219 3.7393670275512005 108 86 47 0.16806201209893004 45 3787 48 1905 44 2501
2212 0.28536324311798877 3.0516012532294448 5.9470748232511896 146 127 84 1.488435914038956 54 1966 48 1927
2213 0.71116616711647851 3.2327389702720954 3.7764085739088622 103 85 46 0.40213387019103819 45 3013 49 2232 48 1938
2214 0.75063894224664585 3.2435919466332304 3.8825319479899432 103 85 46 0.16572132654191515 45 3014 47 2407 48 1939
2215 1.0844104735336046 3.3462840762297912 3.8486593898457766 120 98 61 0.15638824081174282 49 3016 48 1941 44 1511
2216 1.0022422593595857 3.3283088952284072 3.8368156128254856 103 83 48 0.56057048336165682 43 2269 45 3001 48 1944 47 2408 44 2520 50 1247 52 2649
2217 1.0454036005345326 3.3387770685281986 3.8412833223385343 129 106 72 0.44221354402834512 43 1096 45 2996 48 1946 47 2401 44 1516
2218 1.10061443456831 3.3868378735840463 3.8830421801969996 169 148 105 0.21488465643451193 49 2297 48 1963 44 1531 47 2431 50 1276 52 1934
2219 0.80089942005228554 3.2934144352380064 3.8996273854860304 106 85 54 0.23809311111762904 49 2269 48 1966 50 1238 52 1881
2220 1.0458069578629825 3.3834795905398591 3.8983626803116769 137 119 79 0.22089928289295824 45 3034 48 1980 52 1932
2221 0.44600861826911409 3.2439268842613456 3.9704375019815878 58 40 4 0.18494628216764894 43 2369 45 3870 48 2010
2222 0.37738718078605299 3.2537853286607605 4.0049909009514923 163 145 107 0.2439357595496264 43 2397 48 2028 39 1821
2223 0.95136248718371752 3.487022136897866 4.2158489964092603 78 49 15 0.14735388688019144 43 3065 45 3114 48 2063
2224 0.36174593201220712 3.3467003276687279 4.1694998393500535 128 110 74 0.14732711628967701 45 3157 48 2079 55 1052
2225 -0.50038016810378394 3.2122645120099498 4.4835161995205812 60 41 9 0.86222649582099253 45 1945 48 2089 44 1792 52 2625 54 2107 53 1667
2227 1.1403820159230309 1.6021371706039933 2.788932488050659 88 67 24 0.97040129126053665 54 2303 48 2108
2228 0.83026383253974667 1.2741325480848269 3.6548467252408408 54 31 0 1.4080074617268457 54 126 48 2120
2230 0.31745645275591916 1.7413429393789963 2.1494772895388148 61 38 0 0.7005439421384716 54 2280 48 2142 44 1842 52 2715 50 1852 57 2349 38 271 37 108 33 9 20 381 28 48 24 31 24 225 27 35 22 300 19 233 16 279 12 469 10 426 9 691 5 662 83 823 7 813 29 784 40 781 18 808 51 655 96 59
2232 -0.55638394760384069 1.5500748795284258 2.311542359349978 212 183 123 0.25006790263388934 43 3206 48 2161 10 534 16 412
2235 0.95431060148988789 2.3644256070978664 2.2172477834246251 138 106 32 0.60559117452695477 49 2642 54 2914 48 2265 52 1372 55 1616 59 895 58 955 63 519
2236 -0.25680116123969382 2.0984963571376967 2.4129817759122112 187 153 89 0.28152970223666551 45 3524 49 2623 48 2297 39 1406
2239 -0.50140849554153377 2.0844768043395661 2.5196344221879454 79 49 0 0.3828653448163743 49 1772 54 2382 48 2340 55 1396
2240 0.24402301652963002 2.312813421894047 2.4912816939447371 172 144 96 0.64929583599718366 47 2923 54 2915 48 2347 53 1845
2241 0.46951708717522145 2.5279409596436886 2.7419914037944273 109 98 70 0.27355595160553164 43 2824 47 2971 48 2391 52 2268 55 2526 39 2318
2242 0.98029249464351775 2.6888881691040347 2.7301788086378473 58 37 7 0.49819031801608177 49 3249 48 2398 55 2605
2243 0.83998657853847292 2.6620452889430113 2.7397576560023338 64 48 16 0.37079350030037045 49 2757 48 2400 44 1320
2244 0.9098210998304056 2.6987712250524094 3.1144284757468066 116 97 64 1.6038430045829115 45 3612 48 2408 44 1330 52 2337
2245 0.58557699179469036 2.6529715140040215 2.9557241932282583 98 87 59 0.16145774452310646 47 2138 48 2409
2246 0.53550535684203893 2.6478096538310134 2.9013202440874273 103 89 63 0.21892469554027574 47 2144 49 2770 48 2412 52 2314 54 2542 55 1744
2247 0.7022969781752435 2.7288393515117559 2.8558936925790315 125 105 72 1.5839414426318132 45 3622 48 2419 39 1458
2248 0.67274310081120814 2.8284412566013764 3.119077705258273 57 37 10 0.27907613124568914 49 2822 48 2451 50 1604
2249 0.75979519329001088 2.8650826977511916 3.0612979182484605 136 113 82 0.20664799386873664 47 3095 48 2457
2250 0.21769920601858209 2.709740430696804 3.1712582371012767 96 78 56 0.24126232513432688 47 3109 48 2460 44 2351
2251 0.45853090193093116 2.7992659042298231 3.2832360062829209 141 126 98 0.14660068667747317 45 3685 47 3121 48 2471 44 2354
2252 1.0216360738233361 2.9770988519268076 3.2153234423385539 121 99 60 0.24021920914208958 45 3677 49 2865 48 2478 50 1638
2253 1.4023195485571094 3.0761364413232295 3.302354329929289 86 60 2 1.2956178046046678 45 4203 48 2479 52 3029 54 3308 55 3439 50 2574 47 3876 39 2347 53 2372
2254 -0.24876056684797268 2.6543404966857262 3.3055245615107345 29 12 0 0.36615680330546652 45 3731 47 2258 48 2493 44 1444 46 1564
2255 1.0772987373069884 3.0564853374218113 3.3100616983763747 80 59 14 0.19222412701616856 49 2878 48 2499 52 3024
2257 1.0367365111861213 3.045912682047176 3.3777615183858014 78 56 14 0.41276987890465988 45 3703 48 2502 44 2371
2258 1.1121355525797469 3.1020684160415612 3.4513643217721772 84 63 18 0.41473441468456507 47 3179 48 2512 45 3716
2259 1.0529310767805526 3.0904441824035338 3.3872019185027864 86 65 18 0.033571080261385722 47 3180 48 2514
2260 1.0757638948275481 3.1350733758983313 3.5047498850758432 85 64 19 0.15190960005408968 47 3194 49 2906 48 2525
2261 1.0757638948275481 3.1350733758983313 3.5047498850758432 85 64 19 0.15190960005408968 47 3193 49 2905 48 2526
2262 1.0317361986207523 3.1460008913082644 3.4626922684147323 114 93 46 0.37792498897130922 45 3751 48 2535 44 1440
2263 0.85983918859789532 3.1357039589596059 3.6580286625121099 54 35 5 0.167138539487659 45 3763 48 2549 44 2475
2264 0.65347130594401071 3.1137772695881303 3.6286363221609927 164 146 117 0.27777473309503609 43 2996 45 3777 48 2558 50 1705
2265 0.39529188221717004 3.0644675152234244 3.6857764443412853 146 130 98 0.15868559992173484 43 3010 48 2566 39 1757
2266 1.0175376269478604 3.2643413764487876 3.6989715766419979 68 44 15 0.22289200384356267 45 4258 49 2970 48 2569 44 3176
2267 1.035366695866925 3.3202024700414805 3.8660822854048966 61 38 5 0.24069259005165067 45 3804 48 2596 47 2392 44 1508
2268 0.60202478994669961 3.1948036042483183 3.8336982286994488 56 39 9 0.37076853243030472 45 3815 48 2597 47 3252 44 2539
2269 0.4725844783844787 3.1697286775302009 3.8627799868411343 57 37 10 0.32917706148838755 45 4275 48 2603 47 3269
2270 0.15965752496376895 3.1028990122993436 3.8874879512738154 76 59 16 0.40671489495821761 45 3858 49 2982 48 2616 47 3293 44 2591
2271 0.8774806443283506 3.3279561503336708 3.9191335798276015 55 36 4 0.51873676778946631 45 3829 48 2620 47 3282
2272 0.73733357611430461 3.3035825575867994 3.9583539489965025 49 33 1 0.52641557893603952 49 3026 48 2626 52 2645 50 1780
2273 0.58276096171915359 3.2921528621979501 3.9465732128482807 53 34 2 0.12430854630975612 45 3867 47 2507 48 2641
2274 0.53322631014541488 3.3075101212386646 3.9421705638212252 64 44 11 0.13104452163591074 45 4296 49 3432 48 2649
2275 1.3787019102981204 3.6074034233540662 4.1917513918534608 178 151 74 0.33199544921933477 45 3094 47 2533 48 2662 44 1625 52 1969
2276 0.68550059619022308 3.4326429643798799 4.1464176446579168 60 38 1 0.17693241773933685 43 3090 48 2675 44 2646
2277 0.61858803238257432 1.7579044098789767 2.1141842431105999 79 54 3 0.93400652752528801 45 3942 48 2702 44 1818 55 2273 39 2549 41 1284 39 983 57 2358 53 1239 38 655 37 223 36 401 35 329 33 192 20 356 28 322 24 206 25 341 26 227 27 24 23 237 22 283 16 25 17 188 15 341 12 428 10 391 9 659 6 42 5 55 8 33 40 774 51 42 73 737 96 49 77 230
2278 0.70153972409196419 1.8107512892979025 2.0774148969003647 84 56 6 0.2412690952765616 47 3389 48 2705 41 2955 28 620
